8.494218826293945312e+00,-2.997958898544311523e+00,-2.211439371109008789e+00,9.635788798332214355e-01
8.711718559265136719e+00,-3.323203086853027344e+00,-2.289093494415283203e+00,9.623243808746337891e-01
8.625468254089355469e+00,-3.541079044342041016e+00,-2.289093494415283203e+00,9.623243212699890137e-01
8.226659774780273438e+00,-3.621537923812866211e+00,-2.206722259521484375e+00,9.636551737785339355e-01
8.519824028015136719e+00,-3.879111289978027344e+00,-2.298251628875732422e+00,9.621765017509460449e-01
7.081992149353027344e+00,-3.332534074783325195e+00,-1.921535730361938477e+00,9.682767987251281738e-01
8.367558479309082031e+00,-4.197475433349609375e+00,-2.298251628875732422e+00,9.621765017509460449e-01
6.056503772735595703e+00,-3.329594612121582031e+00,-1.696777462959289551e+00,9.719347953796386719e-01
5.880234241485595703e+00,-3.329594612121582031e+00,-1.658988356590270996e+00,9.725512266159057617e-01
5.550136566162109375e+00,-3.329594612121582031e+00,-1.588967442512512207e+00,9.736943244934082031e-01
7.966464519500732422e+00,-4.916352272033691406e+00,-2.298251628875732422e+00,9.621765017509460449e-01
7.775507450103759766e+00,-5.213115215301513672e+00,-2.298251628875732422e+00,9.621765017509460449e-01
7.709355354309082031e+00,-5.310410022735595703e+00,-2.298251628875732422e+00,9.621765613555908203e-01
7.642031192779541016e+00,-5.406865119934082031e+00,-2.298251628875732422e+00,9.621765017509460449e-01
7.573476314544677734e+00,-5.502470493316650391e+00,-2.298251628875732422e+00,9.621765613555908203e-01
7.432812213897705078e+00,-5.691049575805664062e+00,-2.298251628875732422e+00,9.621765613555908203e-01
7.360702991485595703e+00,-5.783998966217041016e+00,-2.298251628875732422e+00,9.621765613555908203e-01
7.287460803985595703e+00,-5.876039981842041016e+00,-2.298251628875732422e+00,9.621765017509460449e-01
7.213027000427246094e+00,-5.967153072357177734e+00,-2.298251628875732422e+00,9.621765613555908203e-01
7.137480258941650391e+00,-6.057323932647705078e+00,-2.298251628875732422e+00,9.621765613555908203e-01
7.060800552368164062e+00,-6.146533012390136719e+00,-2.298251628875732422e+00,9.621765613555908203e-01
6.904101371765136719e+00,-6.322035789489746094e+00,-2.298251628875732422e+00,9.621765613555908203e-01
6.428984165191650391e+00,-6.846181392669677734e+00,-2.305679798126220703e+00,9.620566964149475098e-01
6.163964748382568359e+00,-7.080854415893554688e+00,-2.304776430130004883e+00,9.620712399482727051e-01
5.982558250427246094e+00,-7.231703758239746094e+00,-2.304197788238525391e+00,9.620805978775024414e-01
5.890488147735595703e+00,-7.305414676666259766e+00,-2.303912162780761719e+00,9.620851874351501465e-01
5.797519207000732422e+00,-7.377968788146972656e+00,-2.303636312484741211e+00,9.620896577835083008e-01
5.703691482543945312e+00,-7.449345588684082031e+00,-2.303360462188720703e+00,9.620940685272216797e-01
5.608964920043945312e+00,-7.519545555114746094e+00,-2.303089380264282227e+00,9.620984792709350586e-01
5.513398170471191406e+00,-7.588564395904541016e+00,-2.302823305130004883e+00,9.621027112007141113e-01
5.416992187500000000e+00,-7.656372070312500000e+00,-2.302564382553100586e+00,9.621069431304931641e-01
4.099999904632568359e+00,-6.284638404846191406e+00,-1.842207908630371094e+00,9.695662856101989746e-01
3.916640520095825195e+00,-6.346577167510986328e+00,-1.830924510955810547e+00,9.697498679161071777e-01
3.916249990463256836e+00,-6.528115272521972656e+00,-1.868950605392456055e+00,9.691314101219177246e-01
3.881816387176513672e+00,-6.855561256408691406e+00,-1.934147477149963379e+00,9.680719375610351562e-01
3.914120912551879883e+00,-7.564062118530273438e+00,-2.090900182723999023e+00,9.655294418334960938e-01
3.879492044448852539e+00,-7.982446193695068359e+00,-2.178906202316284180e+00,9.641048908233642578e-01
3.878945112228393555e+00,-8.243242263793945312e+00,-2.236612558364868164e+00,9.631720185279846191e-01
3.880761623382568359e+00,-8.523451805114746094e+00,-2.299229621887207031e+00,9.621607065200805664e-01
3.664765596389770508e+00,-8.616933822631835938e+00,-2.298870563507080078e+00,9.621665477752685547e-01
3.226933479309082031e+00,-8.789502143859863281e+00,-2.298692464828491211e+00,9.621694087982177734e-01
3.005019426345825195e+00,-8.867816925048828125e+00,-2.298692464828491211e+00,9.621694087982177734e-01
2.893359422683715820e+00,-8.904872894287109375e+00,-2.298692464828491211e+00,9.621694684028625488e-01
2.442285060882568359e+00,-9.039003372192382812e+00,-2.298691272735595703e+00,9.621694087982177734e-01
2.099863290786743164e+00,-9.124638557434082031e+00,-2.298693656921386719e+00,9.621694087982177734e-01
1.985058546066284180e+00,-9.150302886962890625e+00,-2.298692464828491211e+00,9.621694087982177734e-01
1.869902253150939941e+00,-9.174526214599609375e+00,-2.298692464828491211e+00,9.621694087982177734e-01
1.638769507408142090e+00,-9.218618392944335938e+00,-2.298691272735595703e+00,9.621694087982177734e-01
1.522792935371398926e+00,-9.238481521606445312e+00,-2.298691272735595703e+00,9.621694087982177734e-01
1.406581997871398926e+00,-9.256889343261718750e+00,-2.298691272735595703e+00,9.621694087982177734e-01
1.290136694908142090e+00,-9.273838043212890625e+00,-2.298691272735595703e+00,9.621694087982177734e-01
1.173515558242797852e+00,-9.289311408996582031e+00,-2.298691272735595703e+00,9.621694087982177734e-01
9.397069811820983887e-01,-9.315869331359863281e+00,-2.298691272735595703e+00,9.621694087982177734e-01
7.052929401397705078e-01,-9.336547851562500000e+00,-2.298691272735595703e+00,9.621694087982177734e-01
5.879101157188415527e-01,-9.344667434692382812e+00,-2.298691272735595703e+00,9.621694087982177734e-01
3.528906106948852539e-01,-9.356489181518554688e+00,-2.298691272735595703e+00,9.621694087982177734e-01
2.302929610013961792e-01,-9.161483764648437500e+00,-2.249892473220825195e+00,9.629574418067932129e-01
1.151562482118606567e-01,-9.163618087768554688e+00,-2.249884366989135742e+00,9.629575610160827637e-01
0.000000000000000000e+00,-9.164336204528808594e+00,-2.249882221221923828e+00,9.629576206207275391e-01
-1.151562482118606567e-01,-9.163622856140136719e+00,-2.249885320663452148e+00,9.629575610160827637e-01
-2.303124964237213135e-01,-9.161483764648437500e+00,-2.249892950057983398e+00,9.629574418067932129e-01
-4.604687392711639404e-01,-9.152929306030273438e+00,-2.249922513961791992e+00,9.629569649696350098e-01
-8.051366806030273438e-01,-9.129389762878417969e+00,-2.250003099441528320e+00,9.629556536674499512e-01
-1.262832045555114746e+00,-9.077353477478027344e+00,-2.249990224838256836e+00,9.629558920860290527e-01
-1.490351557731628418e+00,-9.041635513305664062e+00,-2.249711275100708008e+00,9.629603624343872070e-01
-1.603749990463256836e+00,-9.021562576293945312e+00,-2.249554634094238281e+00,9.629628658294677734e-01
-2.388574123382568359e+00,-8.840150833129882812e+00,-2.248120784759521484e+00,9.629860520362854004e-01
-2.499199151992797852e+00,-8.808466911315917969e+00,-2.247871398925781250e+00,9.629900455474853516e-01
-2.609375000000000000e+00,-8.775351524353027344e+00,-2.247611284255981445e+00,9.629942774772644043e-01
-3.045429706573486328e+00,-8.628715515136718750e+00,-2.246455907821655273e+00,9.630129933357238770e-01
-3.260351419448852539e+00,-8.546967506408691406e+00,-2.245800971984863281e+00,9.630235433578491211e-01
-3.578476428985595703e+00,-8.414028167724609375e+00,-2.244737625122070312e+00,9.630407094955444336e-01
-3.891152143478393555e+00,-8.269135475158691406e+00,-2.243640422821044922e+00,9.630584716796875000e-01
-4.096484184265136719e+00,-8.166230201721191406e+00,-2.242951393127441406e+00,9.630695581436157227e-01
-4.198105335235595703e+00,-8.112812042236328125e+00,-2.242594003677368164e+00,9.630753397941589355e-01
-4.299023151397705078e+00,-8.058105468750000000e+00,-2.242228031158447266e+00,9.630812406539916992e-01
-4.517480373382568359e+00,-8.217221260070800781e+00,-2.302121400833129883e+00,9.621140360832214355e-01
-4.725917816162109375e+00,-8.106904029846191406e+00,-2.303771734237670898e+00,9.620874524116516113e-01
-4.829179763793945312e+00,-8.049799919128417969e+00,-2.304606676101684570e+00,9.620739221572875977e-01
-4.931757926940917969e+00,-7.991401195526123047e+00,-2.305451393127441406e+00,9.620603322982788086e-01
-5.134824275970458984e+00,-7.870771408081054688e+00,-2.307159185409545898e+00,9.620327353477478027e-01
-5.433984279632568359e+00,-7.680336952209472656e+00,-2.309773921966552734e+00,9.619905352592468262e-01
-6.184648513793945312e+00,-7.104575157165527344e+00,-2.312498569488525391e+00,9.619465470314025879e-01
-6.362871170043945312e+00,-6.948710918426513672e+00,-2.313097953796386719e+00,9.619368910789489746e-01
-6.450566291809082031e+00,-6.869115829467773438e+00,-2.313405513763427734e+00,9.619318842887878418e-01
-6.829492092132568359e+00,-6.576738357543945312e+00,-2.327704906463623047e+00,9.617012143135070801e-01
-6.904140472412109375e+00,-6.322031021118164062e+00,-2.298251628875732422e+00,9.621764421463012695e-01
-6.983026981353759766e+00,-6.234775066375732422e+00,-2.298251628875732422e+00,9.621765017509460449e-01
-7.213066101074218750e+00,-5.967143535614013672e+00,-2.298251628875732422e+00,9.621764421463012695e-01
-7.287480354309082031e+00,-5.876035213470458984e+00,-2.298251628875732422e+00,9.621764421463012695e-01
-7.360742092132568359e+00,-5.783994197845458984e+00,-2.298251628875732422e+00,9.621764421463012695e-01
-7.432851314544677734e+00,-5.691049575805664062e+00,-2.298251628875732422e+00,9.621764421463012695e-01
-7.573515415191650391e+00,-5.502465724945068359e+00,-2.298251628875732422e+00,9.621764421463012695e-01
-7.642070293426513672e+00,-5.406865119934082031e+00,-2.298251628875732422e+00,9.621763825416564941e-01
-7.775507450103759766e+00,-5.213115215301513672e+00,-2.298251628875732422e+00,9.621765017509460449e-01
-7.840390682220458984e+00,-5.114990234375000000e+00,-2.298251628875732422e+00,9.621765017509460449e-01
-7.966464519500732422e+00,-4.916342735290527344e+00,-2.298251628875732422e+00,9.621765017509460449e-01
-8.027617454528808594e+00,-4.815854549407958984e+00,-2.298251628875732422e+00,9.621764421463012695e-01
-8.259452819824218750e+00,-4.406420707702636719e+00,-2.298251628875732422e+00,9.621764421463012695e-01
-8.367577552795410156e+00,-4.197470664978027344e+00,-2.298251628875732422e+00,9.621764421463012695e-01
-8.419648170471191406e+00,-4.091991901397705078e+00,-2.298251628875732422e+00,9.621765017509460449e-01
-8.519824028015136719e+00,-3.879111289978027344e+00,-2.298251628875732422e+00,9.621765017509460449e-01
-8.669296264648437500e+00,-3.432407140731811523e+00,-2.289093494415283203e+00,9.623243212699890137e-01
-8.711757659912109375e+00,-3.323198080062866211e+00,-2.289093494415283203e+00,9.623242616653442383e-01
-8.437850952148437500e+00,-3.097831964492797852e+00,-2.206722259521484375e+00,9.636551141738891602e-01
-8.828359603881835938e+00,-2.991664886474609375e+00,-2.288456439971923828e+00,9.623345732688903809e-01
-8.973066329956054688e+00,-2.668168783187866211e+00,-2.298251628875732422e+00,9.621765017509460449e-01
-9.050116539001464844e+00,-2.567744016647338867e+00,-2.309534311294555664e+00,9.619942903518676758e-01
-9.037284851074218750e+00,-2.441831111907958984e+00,-2.298251628875732422e+00,9.621765017509460449e-01
-9.504433631896972656e+00,-2.313417911529541016e+00,-2.401502370834350586e+00,9.605112075805664062e-01
-9.584882736206054688e+00,-1.953549742698669434e+00,-2.401502370834350586e+00,9.605111479759216309e-01
-9.630937576293945312e+00,-1.712060451507568359e+00,-2.401502370834350586e+00,9.605112075805664062e-01
-9.651699066162109375e+00,-1.590903282165527344e+00,-2.401502370834350586e+00,9.605112075805664062e-01
-9.670917510986328125e+00,-1.469492197036743164e+00,-2.401502370834350586e+00,9.605112075805664062e-01
-9.704804420471191406e+00,-1.225996017456054688e+00,-2.401502370834350586e+00,9.605112075805664062e-01
-9.719452857971191406e+00,-1.103950142860412598e+00,-2.401502370834350586e+00,9.605111479759216309e-01
-9.732558250427246094e+00,-9.817284941673278809e-01,-2.401502370834350586e+00,9.605111479759216309e-01
-9.754159927368164062e+00,-7.368358969688415527e-01,-2.401502370834350586e+00,9.605111479759216309e-01
-9.774980545043945312e+00,-3.686767518520355225e-01,-2.401502370834350586e+00,9.605112075805664062e-01
-9.778827667236328125e+00,-2.458154261112213135e-01,-2.401502370834350586e+00,9.605112671852111816e-01
-9.781151771545410156e+00,-1.229150369763374329e-01,-2.401502370834350586e+00,9.605112075805664062e-01
-9.139316558837890625e+00,-0.000000000000000000e+00,-2.401502370834350586e+00,9.629071950912475586e-01
-9.136425971984863281e+00,2.296728491783142090e-01,-2.401502370834350586e+00,9.629071950912475586e-01
-9.132812500000000000e+00,3.444628715515136719e-01,-2.401502370834350586e+00,9.629071950912475586e-01
-9.127773284912109375e+00,4.592040777206420898e-01,-2.401502370834350586e+00,9.629071354866027832e-01
-9.093163490295410156e+00,9.172363281250000000e-01,-2.401502370834350586e+00,9.629071950912475586e-01
-9.067245483398437500e+00,1.145463824272155762e+00,-2.401502370834350586e+00,9.629071950912475586e-01
-9.052147865295410156e+00,1.259311437606811523e+00,-2.401502370834350586e+00,9.629071354866027832e-01
-9.035605430603027344e+00,1.372963786125183105e+00,-2.401502370834350586e+00,9.629071354866027832e-01
-9.017636299133300781e+00,1.486396431922912598e+00,-2.401502370834350586e+00,9.629071354866027832e-01
-8.998242378234863281e+00,1.599589824676513672e+00,-2.401502370834350586e+00,9.629071950912475586e-01
-8.977421760559082031e+00,1.712534189224243164e+00,-2.401502370834350586e+00,9.629071950912475586e-01
-8.955195426940917969e+00,1.825214743614196777e+00,-2.401502370834350586e+00,9.629071950912475586e-01
-8.931562423706054688e+00,1.937602519989013672e+00,-2.401502370834350586e+00,9.629071950912475586e-01
-8.906503677368164062e+00,2.049682617187500000e+00,-2.401502370834350586e+00,9.629071950912475586e-01
-8.880058288574218750e+00,2.161435604095458984e+00,-2.401502370834350586e+00,9.629071354866027832e-01
-8.792284965515136719e+00,2.494594573974609375e+00,-2.401502370834350586e+00,9.629071354866027832e-01
-8.726816177368164062e+00,2.714755773544311523e+00,-2.401502370834350586e+00,9.629071354866027832e-01
-8.692011833190917969e+00,2.824203968048095703e+00,-2.401502370834350586e+00,9.629071354866027832e-01
-8.618300437927246094e+00,3.041738271713256836e+00,-2.401502370834350586e+00,9.629071354866027832e-01
-8.539140701293945312e+00,3.257358312606811523e+00,-2.401502370834350586e+00,9.629071354866027832e-01
-8.497538566589355469e+00,3.364404201507568359e+00,-2.401502370834350586e+00,9.629071354866027832e-01
-8.454589843750000000e+00,3.470917940139770508e+00,-2.401502370834350586e+00,9.629071354866027832e-01
-8.410292625427246094e+00,3.576884746551513672e+00,-2.401502370834350586e+00,9.629071354866027832e-01
-8.317753791809082031e+00,3.787099599838256836e+00,-2.401502370834350586e+00,9.629071354866027832e-01
-8.269511222839355469e+00,3.891323089599609375e+00,-2.401502370834350586e+00,9.629071354866027832e-01
-8.219961166381835938e+00,3.994931459426879883e+00,-2.401502370834350586e+00,9.629071354866027832e-01
-8.063554763793945312e+00,4.301908969879150391e+00,-2.401502370834350586e+00,9.629071354866027832e-01
-8.008847236633300781e+00,4.402900218963623047e+00,-2.401502370834350586e+00,9.629071354866027832e-01
-7.952870845794677734e+00,4.503188610076904297e+00,-2.401502370834350586e+00,9.629071950912475586e-01
-7.895663738250732422e+00,4.602768421173095703e+00,-2.401502370834350586e+00,9.629071950912475586e-01
-7.837206840515136719e+00,4.701625823974609375e+00,-2.401502370834350586e+00,9.629071950912475586e-01
-7.777499675750732422e+00,4.799731254577636719e+00,-2.401502370834350586e+00,9.629071950912475586e-01
-7.654433250427246094e+00,4.993666648864746094e+00,-2.401502370834350586e+00,9.629071950912475586e-01
-7.393867015838623047e+00,5.371953010559082031e+00,-2.401502370834350586e+00,9.629071354866027832e-01
-7.325761318206787109e+00,5.464438438415527344e+00,-2.401502370834350586e+00,9.629071950912475586e-01
-7.256523132324218750e+00,5.556059360504150391e+00,-2.401502370834350586e+00,9.629071950912475586e-01
-7.055214881896972656e+00,5.688764572143554688e+00,-2.381450176239013672e+00,9.632111191749572754e-01
-6.877382755279541016e+00,5.689467430114746094e+00,-2.345378160476684570e+00,9.637581706047058105e-01
-6.712753772735595703e+00,5.696850299835205078e+00,-2.313462495803833008e+00,9.642423987388610840e-01
-6.597441196441650391e+00,5.743144512176513672e+00,-2.298412799835205078e+00,9.644708037376403809e-01
-6.524745941162109375e+00,5.825595378875732422e+00,-2.298412799835205078e+00,9.644708037376403809e-01
-6.058144569396972656e+00,5.982490062713623047e+00,-2.237239837646484375e+00,9.653999209403991699e-01
-6.029999732971191406e+00,6.261723518371582031e+00,-2.284255981445312500e+00,9.646857976913452148e-01
-5.733788967132568359e+00,6.261723518371582031e+00,-2.230970621109008789e+00,9.654951691627502441e-01
-5.599296569824218750e+00,6.271264553070068359e+00,-2.209124088287353516e+00,9.658271670341491699e-01
-5.468144416809082031e+00,6.781591415405273438e+00,-2.289093494415283203e+00,9.646123051643371582e-01
-5.375292778015136719e+00,6.840576171875000000e+00,-2.286021947860717773e+00,9.646589159965515137e-01
-5.244160175323486328e+00,6.849160194396972656e+00,-2.266686916351318359e+00,9.649525284767150879e-01
-4.853515625000000000e+00,6.859926700592041016e+00,-2.208098173141479492e+00,9.658427834510803223e-01
-4.763964653015136719e+00,6.916059494018554688e+00,-2.206722259521484375e+00,9.658637046813964844e-01
-3.631210803985595703e+00,6.052895545959472656e+00,-1.854750156402587891e+00,9.712293148040771484e-01
-3.529921770095825195e+00,6.055278301239013672e+00,-1.841740369796752930e+00,9.714282155036926270e-01
-3.429238319396972656e+00,6.056220531463623047e+00,-1.828774929046630859e+00,9.716264605522155762e-01
-3.626562356948852539e+00,6.596689224243164062e+00,-1.978061437606811523e+00,9.693461656570434570e-01
-3.280683517456054688e+00,6.149350643157958984e+00,-1.831414580345153809e+00,9.715861082077026367e-01
-3.213808536529541016e+00,6.210654258728027344e+00,-1.837500214576721191e+00,9.714930057525634766e-01
-3.051347494125366211e+00,6.278418064117431641e+00,-1.834275484085083008e+00,9.715423583984375000e-01
-2.959921836853027344e+00,6.500971317291259766e+00,-1.876964092254638672e+00,9.708898067474365234e-01
-2.913437366485595703e+00,6.618149280548095703e+00,-1.900074124336242676e+00,9.705367088317871094e-01
-3.219980478286743164e+00,8.132739067077636719e+00,-2.298412799835205078e+00,9.644708633422851562e-01
-3.117538928985595703e+00,8.172563552856445312e+00,-2.298412799835205078e+00,9.644708037376403809e-01
-2.911171913146972656e+00,8.248320579528808594e+00,-2.298412799835205078e+00,9.644708633422851562e-01
-2.807304620742797852e+00,8.284253120422363281e+00,-2.298412799835205078e+00,9.644708633422851562e-01
-2.702988147735595703e+00,8.318877220153808594e+00,-2.298412799835205078e+00,9.644708037376403809e-01
-2.598242044448852539e+00,8.352182388305664062e+00,-2.298412799835205078e+00,9.644708633422851562e-01
-2.493066310882568359e+00,8.384169578552246094e+00,-2.298412799835205078e+00,9.644708633422851562e-01
-2.387519359588623047e+00,8.414843559265136719e+00,-2.298412799835205078e+00,9.644708037376403809e-01
-2.281601428985595703e+00,8.444174766540527344e+00,-2.298412799835205078e+00,9.644708633422851562e-01
-2.175312519073486328e+00,8.472182273864746094e+00,-2.298412799835205078e+00,9.644708037376403809e-01
-1.961699128150939941e+00,8.524169921875000000e+00,-2.298412799835205078e+00,9.644708633422851562e-01
-1.854433536529541016e+00,8.548149108886718750e+00,-2.298412799835205078e+00,9.644708633422851562e-01
-1.746874928474426270e+00,8.570775985717773438e+00,-2.298412799835205078e+00,9.644708633422851562e-01
-1.639042973518371582e+00,8.592050552368164062e+00,-2.298412799835205078e+00,9.644708633422851562e-01
-1.314042925834655762e+00,8.647719383239746094e+00,-2.298412799835205078e+00,9.644708633422851562e-01
-1.205273389816284180e+00,8.663549423217773438e+00,-2.298412799835205078e+00,9.644708633422851562e-01
-9.871679544448852539e-01,8.691102981567382812e+00,-2.298412799835205078e+00,9.644708633422851562e-01
-8.778710961341857910e-01,8.702816963195800781e+00,-2.298412799835205078e+00,9.644708633422851562e-01
-7.684375047683715820e-01,8.713164329528808594e+00,-2.298412799835205078e+00,9.644708633422851562e-01
-4.394921660423278809e-01,8.735932350158691406e+00,-2.298412799835205078e+00,9.644708633422851562e-01
-1.099218726158142090e-01,8.746298789978027344e+00,-2.298412799835205078e+00,9.644708037376403809e-01
4.394726455211639404e-01,8.735937118530273438e+00,-2.298412799835205078e+00,9.644708633422851562e-01
5.491992235183715820e-01,8.729721069335937500e+00,-2.298412799835205078e+00,9.644708633422851562e-01
6.588671803474426270e-01,8.722128868103027344e+00,-2.298412799835205078e+00,9.644708633422851562e-01
8.778515458106994629e-01,8.702816963195800781e+00,-2.298412799835205078e+00,9.644708633422851562e-01
9.871484041213989258e-01,8.691102981567382812e+00,-2.298412799835205078e+00,9.644708633422851562e-01
1.205234289169311523e+00,8.663544654846191406e+00,-2.298412799835205078e+00,9.644708633422851562e-01
1.422578096389770508e+00,8.630522727966308594e+00,-2.298412799835205078e+00,9.644708633422851562e-01
1.530898451805114746e+00,8.611968040466308594e+00,-2.298412799835205078e+00,9.644708633422851562e-01
1.639003872871398926e+00,8.592050552368164062e+00,-2.298412799835205078e+00,9.644708633422851562e-01
1.854413986206054688e+00,8.548144340515136719e+00,-2.298412799835205078e+00,9.644708633422851562e-01
1.961679697036743164e+00,8.524169921875000000e+00,-2.298412799835205078e+00,9.644708633422851562e-01
2.068632841110229492e+00,8.498847007751464844e+00,-2.298412799835205078e+00,9.644708633422851562e-01
2.175273418426513672e+00,8.472177505493164062e+00,-2.298412799835205078e+00,9.644708633422851562e-01
2.281562566757202148e+00,8.444174766540527344e+00,-2.298412799835205078e+00,9.644708633422851562e-01
2.598203182220458984e+00,8.352182388305664062e+00,-2.298412799835205078e+00,9.644708633422851562e-01
2.682832002639770508e+00,8.256953239440917969e+00,-2.281304121017456055e+00,9.647306203842163086e-01
2.786367177963256836e+00,8.222592353820800781e+00,-2.281304121017456055e+00,9.647306203842163086e-01
2.992128849029541016e+00,8.149970054626464844e+00,-2.281304121017456055e+00,9.647306203842163086e-01
3.094316244125366211e+00,8.111728668212890625e+00,-2.281304121017456055e+00,9.647306203842163086e-01
3.195996046066284180e+00,8.072201728820800781e+00,-2.281304121017456055e+00,9.647306203842163086e-01
3.297187328338623047e+00,8.031401634216308594e+00,-2.281304121017456055e+00,9.647306203842163086e-01
3.724257707595825195e+00,7.914511680603027344e+00,-2.298412799835205078e+00,9.644708633422851562e-01
4.213886737823486328e+00,7.665043830871582031e+00,-2.298412799835205078e+00,9.644708633422851562e-01
4.309863090515136719e+00,7.611479282379150391e+00,-2.298412799835205078e+00,9.644708633422851562e-01
4.405175685882568359e+00,7.556723594665527344e+00,-2.298412799835205078e+00,9.644708633422851562e-01
4.593671798706054688e+00,7.443632602691650391e+00,-2.298412799835205078e+00,9.644709229469299316e-01
4.686855316162109375e+00,7.385322093963623047e+00,-2.298412799835205078e+00,9.644708633422851562e-01
4.676660060882568359e+00,6.975375652313232422e+00,-2.206722259521484375e+00,9.658637642860412598e-01
4.853476524353027344e+00,6.859897136688232422e+00,-2.208090066909790039e+00,9.658429622650146484e-01
5.108886718750000000e+00,6.849121093750000000e+00,-2.245249032974243164e+00,9.652782082557678223e-01
5.364726543426513672e+00,6.653349399566650391e+00,-2.245805501937866211e+00,9.652698040008544922e-01
5.488671779632568359e+00,6.634677410125732422e+00,-2.262609720230102539e+00,9.650145769119262695e-01
5.599257469177246094e+00,6.271230220794677734e+00,-2.209113836288452148e+00,9.658274054527282715e-01
6.029941082000732422e+00,6.261674880981445312e+00,-2.284235239028930664e+00,9.646860957145690918e-01
6.146054744720458984e+00,6.223793983459472656e+00,-2.298412799835205078e+00,9.644708633422851562e-01
6.223788738250732422e+00,6.146069049835205078e+00,-2.298412799835205078e+00,9.644708633422851562e-01
6.376269340515136719e+00,5.987724304199218750e+00,-2.298412799835205078e+00,9.644708633422851562e-01
6.451015472412109375e+00,5.907133579254150391e+00,-2.298412799835205078e+00,9.644708037376403809e-01
6.597421646118164062e+00,5.743149280548095703e+00,-2.298412799835205078e+00,9.644708633422851562e-01
6.712675571441650391e+00,5.696796894073486328e+00,-2.313441276550292969e+00,9.642427563667297363e-01
6.877324104309082031e+00,5.689414024353027344e+00,-2.345358133316040039e+00,9.637584686279296875e-01
7.186132431030273438e+00,5.646806716918945312e+00,-2.401502370834350586e+00,9.629071950912475586e-01
7.256523132324218750e+00,5.556054592132568359e+00,-2.401502370834350586e+00,9.629071950912475586e-01
7.325761318206787109e+00,5.464438438415527344e+00,-2.401502370834350586e+00,9.629071950912475586e-01
7.716562271118164062e+00,4.897089958190917969e+00,-2.401502370834350586e+00,9.629072546958923340e-01
7.777499675750732422e+00,4.799741268157958984e+00,-2.401502370834350586e+00,9.629071950912475586e-01
7.837206840515136719e+00,4.701625823974609375e+00,-2.401502370834350586e+00,9.629071950912475586e-01
7.952870845794677734e+00,4.503188610076904297e+00,-2.401502370834350586e+00,9.629071950912475586e-01
8.008847236633300781e+00,4.402895450592041016e+00,-2.401502370834350586e+00,9.629071354866027832e-01
8.063515663146972656e+00,4.301904201507568359e+00,-2.401502370834350586e+00,9.629072546958923340e-01
8.169081687927246094e+00,4.097909927368164062e+00,-2.401502370834350586e+00,9.629072546958923340e-01
8.219922065734863281e+00,3.994931459426879883e+00,-2.401502370834350586e+00,9.629072546958923340e-01
8.269472122192382812e+00,3.891328096389770508e+00,-2.401502370834350586e+00,9.629072546958923340e-01
8.497499465942382812e+00,3.364404201507568359e+00,-2.401502370834350586e+00,9.629072546958923340e-01
8.539101600646972656e+00,3.257358312606811523e+00,-2.401502370834350586e+00,9.629072546958923340e-01
8.655800819396972656e+00,2.933207988739013672e+00,-2.401502370834350586e+00,9.629072546958923340e-01
8.691991806030273438e+00,2.824203968048095703e+00,-2.401502370834350586e+00,9.629071950912475586e-01
8.792265892028808594e+00,2.494599580764770508e+00,-2.401502370834350586e+00,9.629071950912475586e-01
8.822910308837890625e+00,2.383915901184082031e+00,-2.401502370834350586e+00,9.629072546958923340e-01
8.880039215087890625e+00,2.161445379257202148e+00,-2.401502370834350586e+00,9.629071950912475586e-01
8.931542396545410156e+00,1.937602519989013672e+00,-2.401502370834350586e+00,9.629072546958923340e-01
8.955195426940917969e+00,1.825219631195068359e+00,-2.401502370834350586e+00,9.629071950912475586e-01
8.977421760559082031e+00,1.712543964385986328e+00,-2.401502370834350586e+00,9.629071950912475586e-01
8.998222351074218750e+00,1.599594712257385254e+00,-2.401502370834350586e+00,9.629072546958923340e-01
9.035585403442382812e+00,1.372963786125183105e+00,-2.401502370834350586e+00,9.629072546958923340e-01
9.080917358398437500e+00,1.031430602073669434e+00,-2.401502370834350586e+00,9.629071950912475586e-01
9.093163490295410156e+00,9.172314405441284180e-01,-2.401502370834350586e+00,9.629071950912475586e-01
9.113339424133300781e+00,6.884374618530273438e-01,-2.401502370834350586e+00,9.629071950912475586e-01
9.121269226074218750e+00,5.738574266433715820e-01,-2.401502370834350586e+00,9.629071950912475586e-01
9.127753257751464844e+00,4.591943323612213135e-01,-2.401502370834350586e+00,9.629072546958923340e-01
9.138593673706054688e+00,1.148388609290122986e-01,-2.401502370834350586e+00,9.629071950912475586e-01
9.139316558837890625e+00,-0.000000000000000000e+00,-2.401502370834350586e+00,9.629071950912475586e-01
9.132812500000000000e+00,-3.444677591323852539e-01,-2.401502370834350586e+00,9.629071950912475586e-01
9.113320350646972656e+00,-6.884374618530273438e-01,-2.401502370834350586e+00,9.629072546958923340e-01
9.103944778442382812e+00,-8.029052615165710449e-01,-2.401502370834350586e+00,9.629073143005371094e-01
9.093144416809082031e+00,-9.172412157058715820e-01,-2.401502370834350586e+00,9.629072546958923340e-01
9.067226409912109375e+00,-1.145463824272155762e+00,-2.401502370834350586e+00,9.629072546958923340e-01
9.052128791809082031e+00,-1.259311437606811523e+00,-2.401502370834350586e+00,9.629071950912475586e-01
8.977421760559082031e+00,-1.712539076805114746e+00,-2.401502370834350586e+00,9.629071950912475586e-01
8.325859069824218750e+00,-2.590039014816284180e+00,-2.291171789169311523e+00,9.645808339118957520e-01
8.247734069824218750e+00,-2.910966634750366211e+00,-2.298251628875732422e+00,9.644733071327209473e-01
8.148827552795410156e+00,-2.991733312606811523e+00,-2.280986309051513672e+00,9.647354483604431152e-01
7.861249923706054688e+00,-2.998784065246582031e+00,-2.210863351821899414e+00,9.658008217811584473e-01
7.973124980926513672e+00,-3.509926795959472656e+00,-2.289093494415283203e+00,9.646123647689819336e-01
7.861034870147705078e+00,-3.579174757003784180e+00,-2.269645929336547852e+00,9.649076461791992188e-01
7.081992149353027344e+00,-3.332534074783325195e+00,-2.056644439697265625e+00,9.681479334831237793e-01
7.817871093750000000e+00,-3.921728372573852539e+00,-2.298251628875732422e+00,9.644733071327209473e-01
5.880234241485595703e+00,-3.329594612121582031e+00,-1.775637507438659668e+00,9.724394679069519043e-01
5.550136566162109375e+00,-3.329594612121582031e+00,-1.700692892074584961e+00,9.735871553421020508e-01
7.443105220794677734e+00,-4.593373775482177734e+00,-2.298251628875732422e+00,9.644733071327209473e-01
7.384804725646972656e+00,-4.686542987823486328e+00,-2.298251628875732422e+00,9.644733071327209473e-01
7.325331687927246094e+00,-4.778969764709472656e+00,-2.298251628875732422e+00,9.644733071327209473e-01
7.202929496765136719e+00,-4.961552619934082031e+00,-2.298251628875732422e+00,9.644732475280761719e-01
7.139999866485595703e+00,-5.051669597625732422e+00,-2.298251628875732422e+00,9.644733071327209473e-01
7.075956821441650391e+00,-5.140991210937500000e+00,-2.298251628875732422e+00,9.644733071327209473e-01
7.010800838470458984e+00,-5.229496955871582031e+00,-2.298251628875732422e+00,9.644733071327209473e-01
6.944511413574218750e+00,-5.317182540893554688e+00,-2.298251628875732422e+00,9.644733667373657227e-01
6.877167701721191406e+00,-5.404028415679931641e+00,-2.298251628875732422e+00,9.644733071327209473e-01
6.739179611206054688e+00,-5.575146198272705078e+00,-2.298251628875732422e+00,9.644733667373657227e-01
6.668593406677246094e+00,-5.659394264221191406e+00,-2.298251628875732422e+00,9.644733071327209473e-01
6.596952915191650391e+00,-5.742748737335205078e+00,-2.298251628875732422e+00,9.644733071327209473e-01
6.450546741485595703e+00,-5.906713962554931641e+00,-2.298251628875732422e+00,9.644733071327209473e-01
6.375820159912109375e+00,-5.987304687500000000e+00,-2.298251628875732422e+00,9.644733071327209473e-01
6.300077915191650391e+00,-6.066947937011718750e+00,-2.298251628875732422e+00,9.644733071327209473e-01
6.223339557647705078e+00,-6.145639419555664062e+00,-2.298251628875732422e+00,9.644733071327209473e-01
6.145624637603759766e+00,-6.223359107971191406e+00,-2.298251628875732422e+00,9.644733071327209473e-01
6.066933631896972656e+00,-6.300092697143554688e+00,-2.298251628875732422e+00,9.644733071327209473e-01
5.935292720794677734e+00,-6.481786727905273438e+00,-2.309381008148193359e+00,9.643044471740722656e-01
5.507871150970458984e+00,-6.830893516540527344e+00,-2.305735826492309570e+00,9.643597602844238281e-01
5.420996189117431641e+00,-6.898788928985595703e+00,-2.305474758148193359e+00,9.643636941909790039e-01
5.333281040191650391e+00,-6.965585708618164062e+00,-2.305218219757080078e+00,9.643675684928894043e-01
5.244746208190917969e+00,-7.031279087066650391e+00,-2.304966926574707031e+00,9.643714427947998047e-01
4.974452972412109375e+00,-7.221664905548095703e+00,-2.304234504699707031e+00,9.643825292587280273e-01
4.882812500000000000e+00,-7.282861232757568359e+00,-2.304000139236450195e+00,9.643861055374145508e-01
4.099999904632568359e+00,-6.284638404846191406e+00,-1.971740365028381348e+00,9.694426059722900391e-01
3.988183498382568359e+00,-6.284404277801513672e+00,-1.955784916877746582e+00,9.696860313415527344e-01
3.914589643478393555e+00,-7.337587833404541016e+00,-2.185296773910522461e+00,9.661895036697387695e-01
3.914120912551879883e+00,-7.564057350158691406e+00,-2.237919807434082031e+00,9.653896093368530273e-01
3.629160165786743164e+00,-7.970873832702636719e+00,-2.301356077194213867e+00,9.644262194633483887e-01
3.528456926345825195e+00,-8.015258789062500000e+00,-2.301185131072998047e+00,9.644287824630737305e-01
3.017187356948852539e+00,-8.218197822570800781e+00,-2.300403833389282227e+00,9.644406437873840332e-01
2.913496017456054688e+00,-8.254956245422363281e+00,-2.300262212753295898e+00,9.644427895545959473e-01
2.809375047683715820e+00,-8.290424346923828125e+00,-2.300125598907470703e+00,9.644448757171630859e-01
2.599863290786743164e+00,-8.357470512390136719e+00,-2.299869298934936523e+00,9.644487500190734863e-01
2.494492053985595703e+00,-8.389033317565917969e+00,-2.299747228622436523e+00,9.644506573677062988e-01
2.388769388198852539e+00,-8.419296264648437500e+00,-2.299632310867309570e+00,9.644523859024047852e-01
2.176230430603027344e+00,-8.475869178771972656e+00,-2.299415111541748047e+00,9.644556641578674316e-01
2.069453001022338867e+00,-8.502167701721191406e+00,-2.299312591552734375e+00,9.644572138786315918e-01
1.962363243103027344e+00,-8.527148246765136719e+00,-2.299217224121093750e+00,9.644587039947509766e-01
1.639394521713256836e+00,-8.594091415405273438e+00,-2.298960924148559570e+00,9.644625782966613770e-01
1.422832012176513672e+00,-8.632020950317382812e+00,-2.298813343048095703e+00,9.644647836685180664e-01
1.314199209213256836e+00,-8.648974418640136719e+00,-2.298748493194580078e+00,9.644657969474792480e-01
1.205390572547912598e+00,-8.664594650268554688e+00,-2.298691272735595703e+00,9.644666314125061035e-01
9.872655868530273438e-01,-8.692152976989746094e+00,-2.298691272735595703e+00,9.644666314125061035e-01
6.589453220367431641e-01,-8.723188400268554688e+00,-2.298691272735595703e+00,9.644666314125061035e-01
5.492773056030273438e-01,-8.730775833129882812e+00,-2.298691272735595703e+00,9.644666314125061035e-01
4.395312368869781494e-01,-8.736991882324218750e+00,-2.298691272735595703e+00,9.644666314125061035e-01
3.297070264816284180e-01,-8.741830825805664062e+00,-2.298691272735595703e+00,9.644666314125061035e-01
1.074023395776748657e-01,-8.546430587768554688e+00,-2.245892047882080078e+00,9.652684926986694336e-01
-1.074023395776748657e-01,-8.546425819396972656e+00,-2.245889902114868164e+00,9.652684926986694336e-01
-2.148046791553497314e-01,-8.544335365295410156e+00,-2.245872497558593750e+00,9.652687311172485352e-01
-3.221484422683715820e-01,-8.540854454040527344e+00,-2.245844602584838867e+00,9.652691483497619629e-01
-5.366405844688415527e-01,-8.529706954956054688e+00,-2.245751380920410156e+00,9.652705788612365723e-01
-9.644140601158142090e-01,-8.490752220153808594e+00,-2.245430231094360352e+00,9.652754664421081543e-01
-1.070976495742797852e+00,-8.477562904357910156e+00,-2.245322942733764648e+00,9.652770757675170898e-01
-1.177363276481628418e+00,-8.462987899780273438e+00,-2.245204687118530273e+00,9.652789235115051270e-01
-1.283535122871398926e+00,-8.447040557861328125e+00,-2.245075702667236328e+00,9.652808308601379395e-01
-1.389492154121398926e+00,-8.429721832275390625e+00,-2.244936227798461914e+00,9.652829766273498535e-01
-1.495214819908142090e+00,-8.411029815673828125e+00,-2.244785785675048828e+00,9.652852416038513184e-01
-1.600664019584655762e+00,-8.390975952148437500e+00,-2.244624853134155273e+00,9.652877449989318848e-01
-1.810761690139770508e+00,-8.346786499023437500e+00,-2.244271039962768555e+00,9.652930498123168945e-01
-1.915331959724426270e+00,-8.322655677795410156e+00,-2.244078397750854492e+00,9.652960300445556641e-01
-2.227089881896972656e+00,-8.242494583129882812e+00,-2.243517875671386719e+00,9.653045535087585449e-01
-2.433085918426513672e+00,-8.182451248168945312e+00,-2.243113040924072266e+00,9.653106927871704102e-01
-2.535468578338623047e+00,-8.150448799133300781e+00,-2.242897510528564453e+00,9.653139710426330566e-01
-2.738925695419311523e+00,-8.082509994506835938e+00,-2.242440700531005859e+00,9.653208851814270020e-01
-2.839960813522338867e+00,-8.046591758728027344e+00,-2.242199659347534180e+00,9.653245806694030762e-01
-3.140156269073486328e+00,-7.931093692779541016e+00,-2.241425275802612305e+00,9.653363227844238281e-01
-3.239160060882568359e+00,-7.890038967132568359e+00,-2.241150379180908203e+00,9.653404951095581055e-01
-3.435546875000000000e+00,-7.804145336151123047e+00,-2.240575551986694336e+00,9.653491973876953125e-01
-3.532871007919311523e+00,-7.759325981140136719e+00,-2.240276098251342773e+00,9.653537273406982422e-01
-3.725703001022338867e+00,-7.665956974029541016e+00,-2.239652395248413086e+00,9.653632640838623047e-01
-3.821249961853027344e+00,-7.617543697357177734e+00,-2.239361286163330078e+00,9.653676748275756836e-01
-4.013535022735595703e+00,-7.522983074188232422e+00,-2.240514516830444336e+00,9.653501510620117188e-01
-4.517402172088623047e+00,-7.530097484588623047e+00,-2.307404518127441406e+00,9.643344283103942871e-01
-4.708456993103027344e+00,-7.419301509857177734e+00,-2.308991432189941406e+00,9.643102884292602539e-01
-4.896835803985595703e+00,-7.303735256195068359e+00,-2.310605287551879883e+00,9.642857909202575684e-01
-5.172734260559082031e+00,-7.119638442993164062e+00,-2.312441110610961914e+00,9.642579555511474609e-01
-5.526367187500000000e+00,-6.853774070739746094e+00,-2.313461780548095703e+00,9.642423987388610840e-01
-5.612695217132568359e+00,-6.784565448760986328e+00,-2.313729047775268555e+00,9.642384052276611328e-01
-5.698183536529541016e+00,-6.714286804199218750e+00,-2.314000129699707031e+00,9.642342925071716309e-01
-5.970956802368164062e+00,-6.520693302154541016e+00,-2.323243141174316406e+00,9.640939831733703613e-01
-6.145644187927246094e+00,-6.223354339599609375e+00,-2.298251628875732422e+00,9.644733071327209473e-01
-6.223378658294677734e+00,-6.145634651184082031e+00,-2.298251628875732422e+00,9.644732475280761719e-01
-6.300117015838623047e+00,-6.066943168640136719e+00,-2.298251628875732422e+00,9.644732475280761719e-01
-6.375839710235595703e+00,-5.987299442291259766e+00,-2.298251628875732422e+00,9.644733071327209473e-01
-6.524296760559082031e+00,-5.825185298919677734e+00,-2.298251628875732422e+00,9.644732475280761719e-01
-6.596972465515136719e+00,-5.742743968963623047e+00,-2.298251628875732422e+00,9.644732475280761719e-01
-6.668632507324218750e+00,-5.659384727478027344e+00,-2.298251628875732422e+00,9.644732475280761719e-01
-6.739218711853027344e+00,-5.575136661529541016e+00,-2.298251628875732422e+00,9.644732475280761719e-01
-6.808749675750732422e+00,-5.490014553070068359e+00,-2.298251628875732422e+00,9.644732475280761719e-01
-6.877187252044677734e+00,-5.404023170471191406e+00,-2.298251628875732422e+00,9.644732475280761719e-01
-6.944550514221191406e+00,-5.317182540893554688e+00,-2.298251628875732422e+00,9.644732475280761719e-01
-7.010800838470458984e+00,-5.229496955871582031e+00,-2.298251628875732422e+00,9.644733071327209473e-01
-7.202909946441650391e+00,-4.961543083190917969e+00,-2.298251628875732422e+00,9.644733071327209473e-01
-7.325331687927246094e+00,-4.778969764709472656e+00,-2.298251628875732422e+00,9.644733071327209473e-01
-7.384804725646972656e+00,-4.686542987823486328e+00,-2.298251628875732422e+00,9.644733071327209473e-01
-7.500253677368164062e+00,-4.499482154846191406e+00,-2.298251628875732422e+00,9.644732475280761719e-01
-7.610956668853759766e+00,-4.309575080871582031e+00,-2.298251628875732422e+00,9.644732475280761719e-01
-7.716855525970458984e+00,-4.116948127746582031e+00,-2.298251628875732422e+00,9.644732475280761719e-01
-7.817871093750000000e+00,-3.921718597412109375e+00,-2.298251628875732422e+00,9.644733071327209473e-01
-7.860937118530273438e+00,-3.579106330871582031e+00,-2.269608497619628906e+00,9.649081230163574219e-01
-7.973164081573486328e+00,-3.509921789169311523e+00,-2.289093494415283203e+00,9.646122455596923828e-01
-8.058847427368164062e+00,-3.308447122573852539e+00,-2.289093494415283203e+00,9.646122455596923828e-01
-7.808320045471191406e+00,-3.091518402099609375e+00,-2.206722259521484375e+00,9.658637046813964844e-01
-7.861210823059082031e+00,-2.998744964599609375e+00,-2.210842609405517578e+00,9.658010005950927734e-01
-8.148691177368164062e+00,-2.991664886474609375e+00,-2.280941247940063477e+00,9.647360444068908691e-01
-8.283671379089355469e+00,-2.807089805603027344e+00,-2.298251628875732422e+00,9.644733071327209473e-01
-8.351601600646972656e+00,-2.598037004470825195e+00,-2.298251628875732422e+00,9.644733071327209473e-01
-8.414258003234863281e+00,-2.387338876724243164e+00,-2.298251628875732422e+00,9.644732475280761719e-01
-8.880058288574218750e+00,-2.161440372467041016e+00,-2.401502370834350586e+00,9.629071354866027832e-01
-8.931562423706054688e+00,-1.937602519989013672e+00,-2.401502370834350586e+00,9.629071950912475586e-01
-8.955214500427246094e+00,-1.825214743614196777e+00,-2.401502370834350586e+00,9.629071354866027832e-01
-9.017636299133300781e+00,-1.486391544342041016e+00,-2.401502370834350586e+00,9.629071354866027832e-01
-9.067265510559082031e+00,-1.145454049110412598e+00,-2.401502370834350586e+00,9.629071354866027832e-01
-9.093183517456054688e+00,-9.172314405441284180e-01,-2.401502370834350586e+00,9.629071354866027832e-01
-9.103983879089355469e+00,-8.028954863548278809e-01,-2.401502370834350586e+00,9.629071354866027832e-01
-9.113359451293945312e+00,-6.884277462959289551e-01,-2.401502370834350586e+00,9.629071354866027832e-01
-9.127773284912109375e+00,-4.591943323612213135e-01,-2.401502370834350586e+00,9.629071950912475586e-01
-9.132812500000000000e+00,-3.444531261920928955e-01,-2.401502370834350586e+00,9.629071950912475586e-01
-9.136425971984863281e+00,-2.296679615974426270e-01,-2.401502370834350586e+00,9.629071950912475586e-01
-9.138593673706054688e+00,-1.148388609290122986e-01,-2.401502370834350586e+00,9.629071950912475586e-01
-8.571406364440917969e+00,-0.000000000000000000e+00,-2.401502370834350586e+00,9.650205373764038086e-01
-8.570722579956054688e+00,1.077099591493606567e-01,-2.401502370834350586e+00,9.650205373764038086e-01
-8.560585975646972656e+00,4.306640625000000000e-01,-2.401502370834350586e+00,9.650205373764038086e-01
-8.538261413574218750e+00,7.530077695846557617e-01,-2.401502370834350586e+00,9.650205373764038086e-01
-8.528124809265136719e+00,8.602392673492431641e-01,-2.401502370834350586e+00,9.650205373764038086e-01
-8.516640663146972656e+00,9.673388600349426270e-01,-2.401502370834350586e+00,9.650205373764038086e-01
-8.503828048706054688e+00,1.074282169342041016e+00,-2.401502370834350586e+00,9.650204777717590332e-01
-8.474140167236328125e+00,1.287646412849426270e+00,-2.401502370834350586e+00,9.650205373764038086e-01
-8.457284927368164062e+00,1.394033193588256836e+00,-2.401502370834350586e+00,9.650205373764038086e-01
-8.439101219177246094e+00,1.500195264816284180e+00,-2.401502370834350586e+00,9.650205373764038086e-01
-8.398730278015136719e+00,1.711796879768371582e+00,-2.401502370834350586e+00,9.650205373764038086e-01
-8.353066444396972656e+00,1.922319293022155762e+00,-2.401502370834350586e+00,9.650205373764038086e-01
-8.302128791809082031e+00,2.131625890731811523e+00,-2.401502370834350586e+00,9.650204777717590332e-01
-8.215878486633300781e+00,2.443017482757568359e+00,-2.401502370834350586e+00,9.650205373764038086e-01
-8.082773208618164062e+00,2.852729320526123047e+00,-2.401502370834350586e+00,9.650204777717590332e-01
-8.046288490295410156e+00,2.954072237014770508e+00,-2.401502370834350586e+00,9.650204777717590332e-01
-7.969511508941650391e+00,3.155341625213623047e+00,-2.401502370834350586e+00,9.650204777717590332e-01
-7.929218769073486328e+00,3.255239248275756836e+00,-2.401502370834350586e+00,9.650205373764038086e-01
-7.844921588897705078e+00,3.453471660614013672e+00,-2.401502370834350586e+00,9.650204777717590332e-01
-7.800898075103759766e+00,3.551772356033325195e+00,-2.401502370834350586e+00,9.650205373764038086e-01
-7.755644321441650391e+00,3.649516582489013672e+00,-2.401502370834350586e+00,9.650205373764038086e-01
-7.661484241485595703e+00,3.843266487121582031e+00,-2.401502370834350586e+00,9.650205373764038086e-01
-7.612597465515136719e+00,3.939238309860229492e+00,-2.401502370834350586e+00,9.650204777717590332e-01
-7.562500000000000000e+00,4.034589767456054688e+00,-2.401502370834350586e+00,9.650204777717590332e-01
-7.405058383941650391e+00,4.316757678985595703e+00,-2.401502370834350586e+00,9.650204777717590332e-01
-7.237070083618164062e+00,4.592788219451904297e+00,-2.401502370834350586e+00,9.650205373764038086e-01
-7.119374752044677734e+00,4.773207664489746094e+00,-2.401502370834350586e+00,9.650205373764038086e-01
-7.058827877044677734e+00,4.862294673919677734e+00,-2.401502370834350586e+00,9.650205373764038086e-01
-6.997167587280273438e+00,4.950605392456054688e+00,-2.401502370834350586e+00,9.650205969810485840e-01
-6.739609241485595703e+00,5.295927524566650391e+00,-2.401502370834350586e+00,9.650204777717590332e-01
-6.604374885559082031e+00,5.463618278503417969e+00,-2.401502370834350586e+00,9.650205373764038086e-01
-6.535214900970458984e+00,5.546181678771972656e+00,-2.401502370834350586e+00,9.650204777717590332e-01
-6.464999675750732422e+00,5.627861022949218750e+00,-2.401502370834350586e+00,9.650205373764038086e-01
-6.212538719177246094e+00,5.688759803771972656e+00,-2.360102176666259766e+00,9.656130671501159668e-01
-6.062441349029541016e+00,5.693002700805664062e+00,-2.330071449279785156e+00,9.660431146621704102e-01
-5.837050437927246094e+00,5.764154911041259766e+00,-2.298412799835205078e+00,9.664967060089111328e-01
-5.764160156250000000e+00,5.837055683135986328e+00,-2.298412799835205078e+00,9.664966464042663574e-01
-5.463613033294677734e+00,6.119296550750732422e+00,-2.298412799835205078e+00,9.664966464042663574e-01
-5.386289119720458984e+00,6.187465667724609375e+00,-2.298412799835205078e+00,9.664966464042663574e-01
-5.180156230926513672e+00,6.261718750000000000e+00,-2.276903867721557617e+00,9.668049216270446777e-01
-5.048964500427246094e+00,6.261718750000000000e+00,-2.253653287887573242e+00,9.671382904052734375e-01
-4.920410156250000000e+00,6.261718750000000000e+00,-2.231222152709960938e+00,9.674599766731262207e-01
-4.709218502044677734e+00,6.313300609588623047e+00,-2.206722259521484375e+00,9.678114652633666992e-01
-4.718886375427246094e+00,6.669648170471191406e+00,-2.289093494415283203e+00,9.666302204132080078e-01
-4.549785137176513672e+00,6.786127567291259766e+00,-2.289093494415283203e+00,9.666302204132080078e-01
-4.461249828338623047e+00,6.838310241699218750e+00,-2.287602901458740234e+00,9.666515588760375977e-01
-4.346621036529541016e+00,6.849160194396972656e+00,-2.272779226303100586e+00,9.668640494346618652e-01
-4.226835727691650391e+00,6.849160194396972656e+00,-2.254974126815795898e+00,9.671193361282348633e-01
-4.108886718750000000e+00,6.849154949188232422e+00,-2.237796545028686523e+00,9.673656821250915527e-01
-3.713281154632568359e+00,6.557836532592773438e+00,-2.111449003219604492e+00,9.691795110702514648e-01
-3.543671846389770508e+00,6.642255783081054688e+00,-2.109282493591308594e+00,9.692106246948242188e-01
-3.019902229309082031e+00,7.627382755279541016e+00,-2.298412799835205078e+00,9.664966464042663574e-01
-2.827265501022338867e+00,7.700859069824218750e+00,-2.298412799835205078e+00,9.664967060089111328e-01
-2.730273485183715820e+00,7.735781192779541016e+00,-2.298412799835205078e+00,9.664966464042663574e-01
-2.632851600646972656e+00,7.769477367401123047e+00,-2.298412799835205078e+00,9.664967060089111328e-01
-2.535019397735595703e+00,7.801952838897705078e+00,-2.298412799835205078e+00,9.664966464042663574e-01
